5.011954810470342636e-03 -2.417195215821266174e-02 3.116742074489593506e-01
-6.507869809865951538e-02 6.721324473619461060e-02 -5.915184319019317627e-02
1.761473715305328369e-01 -3.557544201612472534e-02 2.772427164018154144e-02
7.207209616899490356e-02 -1.880420446395874023e-01 -4.024084210395812988e-01
-4.575521349906921387e-01 -5.477038398385047913e-02 -1.453646570444107056e-01
1.087040603160858154e-01 -4.717139527201652527e-02 6.946299690753221512e-03
1.587614789605140686e-02 -2.017782256007194519e-02 2.464531809091567993e-01
6.657496839761734009e-02 8.385169506072998047e-02 -4.651235416531562805e-03
5.613305605947971344e-03 1.110538095235824585e-01 2.660841122269630432e-02
-1.282566338777542114e-01 1.853482723236083984e-01 -4.650456309318542480e-01
1.134576275944709778e-01 -1.218434050679206848e-02 2.942580878734588623e-01
1.407303065061569214e-01 -2.329742908477783203e-02 1.858114823698997498e-02
-2.277721613645553589e-01 1.592088490724563599e-01 -5.000000000000000000e-01
-4.528828561305999756e-01 4.393937438726425171e-02 -3.728657960891723633e-01
-1.126400902867317200e-01 -2.056033723056316376e-02 1.883806101977825165e-02
-1.213270351290702820e-01 -1.059161499142646790e-02 4.028050974011421204e-02
-4.528052508831024170e-01 -1.109701395034790039e-02 -1.764211505651473999e-01
4.719111025333404541e-01 7.779519259929656982e-02 -4.472692608833312988e-01
-4.530508816242218018e-01 8.358804136514663696e-02 -3.432926833629608154e-01
3.007832169532775879e-01 1.881941258907318115e-01 -3.784142434597015381e-01
-1.453292816877365112e-01 -2.562853693962097168e-02 9.734359569847583771e-03
-4.515255689620971680e-01 -1.911007314920425415e-01 -3.387588262557983398e-01
2.145317941904067993e-01 3.119269572198390961e-02 4.682057537138462067e-03
6.113722175359725952e-02 -2.769097685813903809e-02 4.674295783042907715e-01
4.656009972095489502e-01 -2.951812371611595154e-02 -1.505569815635681152e-01
-4.264484941959381104e-01 1.911860704421997070e-01 -4.161709845066070557e-01
-7.924713194370269775e-02 -1.831914633512496948e-01 -4.888467788696289062e-01
-4.750813841819763184e-01 1.813666671514511108e-01 -3.369492590427398682e-01
-4.731693565845489502e-01 -1.108417659997940063e-02 -5.015884041786193848e-01
2.150297611951828003e-01 1.872895509004592896e-01 -2.065922468900680542e-01
-1.008476242423057556e-01 -3.189570829272270203e-02 4.693898856639862061e-01
4.659856557846069336e-01 8.017589151859283447e-02 -4.201312661170959473e-01
4.628807604312896729e-01 1.023272722959518433e-01 -2.554231882095336914e-01
-2.906274497509002686e-01 1.906757801771163940e-01 -2.679929435253143311e-01
-2.541624903678894043e-01 1.735316589474678040e-02 -2.488939091563224792e-02
1.607975214719772339e-01 -1.900624781847000122e-01 -3.742153644561767578e-01
-4.613034427165985107e-01 -8.862045407295227051e-02 -1.519558131694793701e-01
4.638720750808715820e-01 -8.042005449533462524e-02 -4.508388936519622803e-01
-4.544353187084197998e-01 -6.895372644066810608e-05 -2.900553941726684570e-01
4.444396495819091797e-01 8.503323048353195190e-02 -4.985382854938507080e-01
-4.822507873177528381e-02 8.661524951457977295e-02 2.623677812516689301e-02
4.456794559955596924e-01 -9.318909049034118652e-02 -5.000000000000000000e-01
-8.118264377117156982e-03 3.916475456207990646e-03 2.676985561847686768e-01
1.193348541855812073e-01 2.078161016106605530e-02 1.932701766490936279e-01
-4.654178619384765625e-01 -5.529472976922988892e-02 -4.300509393215179443e-01
2.163827791810035706e-02 -5.736654251813888550e-02 2.189441472291946411e-01
1.566657125949859619e-01 1.546690240502357483e-02 -1.119135878980159760e-02
1.677811592817306519e-01 1.431233249604701996e-02 -3.604814410209655762e-02
3.407469391822814941e-01 1.374547556042671204e-02 -4.989654123783111572e-01
4.660342335700988770e-01 -1.139346957206726074e-01 -2.623533010482788086e-01
-1.312346309423446655e-01 1.874609887599945068e-01 -3.246848881244659424e-01
-9.604317694902420044e-02 -2.182427421212196350e-02 2.884021215140819550e-02
-1.739571392536163330e-01 2.719300985336303711e-02 -7.010216359049081802e-03
1.715941727161407471e-01 -1.899962574243545532e-01 -3.681051731109619141e-01
-2.996918931603431702e-02 -1.345847845077514648e-01 6.487084925174713135e-02
5.412584543228149414e-02 -9.665921330451965332e-02 1.984805166721343994e-01
3.362495303153991699e-01 -3.032936528325080872e-02 -4.998151659965515137e-01
1.227839291095733643e-01 -4.238969646394252777e-03 8.448880165815353394e-02
-9.191434085369110107e-02 4.515957832336425781e-02 3.733007609844207764e-02
-1.063358038663864136e-02 -5.477578192949295044e-02 2.197891473770141602e-01
-1.860340982675552368e-01 -1.882706582546234131e-01 -3.301455676555633545e-01
-3.045113570988178253e-02 -1.343966424465179443e-01 1.494459062814712524e-01
2.478200644254684448e-01 -1.916601061820983887e-01 -3.769154250621795654e-01
-4.397772848606109619e-01 1.884495913982391357e-01 -3.737872242927551270e-01
-4.711499214172363281e-01 1.199288666248321533e-02 -5.011502504348754883e-01
1.073797568678855896e-01 5.430032685399055481e-02 1.243256870657205582e-02
4.325592517852783203e-01 1.916726678609848022e-01 -3.059269487857818604e-01
-2.585676908493041992e-01 8.275686204433441162e-02 -5.000000000000000000e-01
2.776941061019897461e-01 1.886082440614700317e-01 -3.190396428108215332e-01
1.541973054409027100e-01 -5.603492632508277893e-02 -4.997813403606414795e-01
2.402830123901367188e-01 -1.889706403017044067e-01 -3.416265845298767090e-01
2.040668576955795288e-01 -1.876952052116394043e-01 -2.685644626617431641e-01
2.362508513033390045e-02 1.857407093048095703e-01 -4.278623759746551514e-01
3.814533054828643799e-01 1.894806474447250366e-01 -3.438052833080291748e-01
-2.341991364955902100e-01 -2.868863008916378021e-02 7.163114380091428757e-03
4.681198596954345703e-01 1.376387774944305420e-01 -3.848610818386077881e-01
1.341578662395477295e-01 1.709232479333877563e-02 8.035173267126083374e-02
4.628563523292541504e-01 6.339932233095169067e-02 -3.375670611858367920e-01
-4.600350558757781982e-01 -7.137783616781234741e-02 -3.969505131244659424e-01
4.622437953948974609e-01 6.623250432312488556e-03 -2.945730686187744141e-01
-1.172669976949691772e-01 7.481829077005386353e-02 -5.000000000000000000e-01
-3.040167093276977539e-01 1.904501020908355713e-01 -4.450850188732147217e-01
4.625194072723388672e-01 1.866913884878158569e-01 -4.487433731555938721e-01
2.408859580755233765e-01 1.566670835018157959e-02 3.057145327329635620e-02
2.659203708171844482e-01 -1.708400994539260864e-01 -5.000000000000000000e-01
1.787594854831695557e-01 2.749836444854736328e-02 2.127091027796268463e-02
-1.098918989300727844e-01 4.114580154418945312e-02 1.791979968547821045e-01
-1.752264648675918579e-01 -1.847286224365234375e-01 -1.751009821891784668e-01
-9.947416186332702637e-02 3.609338775277137756e-02 -2.793537080287933350e-02
-4.553126990795135498e-01 -5.642187595367431641e-02 -3.231428265571594238e-01
-4.742344617843627930e-01 -1.531708538532257080e-01 -2.867579460144042969e-01
-2.564215660095214844e-01 2.330171689391136169e-02 -6.478207651525735855e-03
-1.367433816194534302e-01 2.736340090632438660e-02 3.459111973643302917e-02
-2.008886188268661499e-01 -1.889314055442810059e-01 -3.095814287662506104e-01
-1.063035801053047180e-01 1.725194975733757019e-02 3.122136741876602173e-02
2.065992653369903564e-01 1.861963868141174316e-01 -2.551309764385223389e-01
2.264645993709564209e-01 1.824347674846649170e-01 -4.971991181373596191e-01
9.670743346214294434e-02 1.036139205098152161e-01 -4.998491704463958740e-01
4.626686871051788330e-01 -6.030987948179244995e-02 -2.892183065414428711e-01
-2.912521064281463623e-01 1.905304491519927979e-01 -3.850726783275604248e-01
2.371373623609542847e-01 1.876003593206405640e-01 -2.464821487665176392e-01
-3.251885771751403809e-01 -1.599425375461578369e-01 -5.000000000000000000e-01
-2.879732549190521240e-01 -1.874419897794723511e-01 -2.703198790550231934e-01
-1.183111593127250671e-02 1.967610791325569153e-03 3.579703867435455322e-01
1.333557069301605225e-01 -1.891081929206848145e-01 -3.719969987869262695e-01
3.612340390682220459e-01 -4.223906621336936951e-02 -4.990028440952301025e-01
4.712955355644226074e-01 -5.264190956950187683e-02 -8.395173400640487671e-02
9.510787576436996460e-02 -3.650524653494358063e-03 4.940517544746398926e-01
4.625822007656097412e-01 1.059336811304092407e-01 -4.221400022506713867e-01
-1.392397433519363403e-01 -1.578595489263534546e-02 4.640322029590606689e-01
7.397076487541198730e-02 -2.880017831921577454e-02 3.174536228179931641e-01
3.218574449419975281e-03 -2.784907817840576172e-03 3.696858286857604980e-01
4.595242738723754883e-01 8.439548313617706299e-02 -4.976171851158142090e-01
4.655745625495910645e-01 9.447837620973587036e-02 -4.025624692440032959e-01
4.637070298194885254e-01 4.873524978756904602e-02 -3.317368328571319580e-01
-1.208750307559967041e-01 6.720887497067451477e-03 -2.335195615887641907e-02
-5.927779152989387512e-02 -1.279602497816085815e-01 1.353441774845123291e-01
1.303376555442810059e-01 4.628331586718559265e-02 1.133968308568000793e-01
-4.708579480648040771e-01 1.490981876850128174e-01 -3.816930055618286133e-01
-3.029960095882415771e-01 -2.353364787995815277e-02 -5.000000000000000000e-01
-8.043941110372543335e-03 -1.120800152420997620e-03 3.259139657020568848e-01
-1.051427610218524933e-02 8.189886808395385742e-03 2.298729270696640015e-01
-2.501994930207729340e-02 1.011057421565055847e-01 2.014798820018768311e-01
4.639022052288055420e-01 8.038906753063201904e-02 -3.775592744350433350e-01
-6.810687482357025146e-02 -7.321526855230331421e-02 1.969151347875595093e-01
2.259902954101562500e-01 -3.963349387049674988e-02 -4.996071457862854004e-01
-4.684633612632751465e-01 -1.000332757830619812e-01 -5.914047732949256897e-02
4.657135903835296631e-01 7.414724677801132202e-03 -3.732290863990783691e-01
2.768021821975708008e-01 -1.884997040033340454e-01 -2.124819606542587280e-01
-3.359922394156455994e-02 7.314846664667129517e-02 2.092522680759429932e-01
-1.180415749549865723e-01 -1.679939404129981995e-02 -7.252407819032669067e-02
-4.555771052837371826e-01 -6.608118116855621338e-02 -3.452925980091094971e-01
2.545332014560699463e-01 2.155227400362491608e-02 -5.002279877662658691e-01
1.217523366212844849e-01 -2.420911379158496857e-02 4.988494813442230225e-01
1.019556075334548950e-01 -1.016882508993148804e-01 1.533967405557632446e-01
-8.249396085739135742e-02 -2.859614416956901550e-02 2.048543840646743774e-01
1.714743822813034058e-01 1.877270936965942383e-01 -4.155896008014678955e-01
3.171036839485168457e-01 1.863275319337844849e-01 -3.331527709960937500e-01
1.904173754155635834e-02 1.152059882879257202e-01 1.962623447179794312e-01
4.632220864295959473e-01 4.656795412302017212e-02 -2.809151113033294678e-01
1.155570521950721741e-01 -9.153430163860321045e-02 -5.005987882614135742e-01
-4.659828543663024902e-01 1.221573129296302795e-01 -4.991465210914611816e-01
1.327345073223114014e-01 1.746279746294021606e-02 1.147416159510612488e-01
1.039786711335182190e-01 -1.892902255058288574e-01 -3.655760288238525391e-01
4.672930836677551270e-01 -2.242495119571685791e-02 -1.152411773800849915e-01
1.828366070985794067e-01 -1.859095692634582520e-01 -1.846950799226760864e-01
3.568503260612487793e-02 1.010466665029525757e-01 1.468041632324457169e-02
-3.604781329631805420e-01 -8.401296101510524750e-03 -4.998476207256317139e-01
-3.262133151292800903e-02 5.479590222239494324e-02 2.139096409082412720e-01
-3.934008479118347168e-01 1.834733039140701294e-01 -2.793242335319519043e-01
-1.142619643360376358e-02 1.874512434005737305e-02 3.002668619155883789e-01
-9.930863231420516968e-02 1.202250346541404724e-01 -7.713568210601806641e-02
-7.770294696092605591e-02 2.024896629154682159e-02 2.068929672241210938e-01
-2.536008059978485107e-01 1.691525578498840332e-01 -5.010350346565246582e-01
-1.757524907588958740e-01 -1.894878894090652466e-01 -3.828439414501190186e-01
1.617726683616638184e-01 -2.782024443149566650e-02 2.428286243230104446e-03
-8.415420353412628174e-02 5.197393521666526794e-02 2.488204464316368103e-02
-1.542404294013977051e-02 1.344348303973674774e-02 3.658710420131683350e-01
1.196420267224311829e-01 -1.338629573583602905e-01 -8.351689577102661133e-02
-4.158124625682830811e-01 -1.388192083686590195e-02 -4.997356235980987549e-01
-4.672588407993316650e-01 -1.289123594760894775e-01 -3.880581259727478027e-01
-3.308662679046392441e-03 3.152290359139442444e-02 2.248063832521438599e-01
3.531567156314849854e-01 -1.890112608671188354e-01 -1.216635480523109436e-01
1.091833934187889099e-01 1.869969367980957031e-01 -4.381600022315979004e-01
-4.763057231903076172e-01 -1.393688917160034180e-01 -4.315765798091888428e-01
2.182457447052001953e-01 -1.894092708826065063e-01 -3.258998095989227295e-01
1.243532299995422363e-01 3.576760739088058472e-02 7.772915065288543701e-02
-2.373987585306167603e-01 1.903268396854400635e-01 -3.453908562660217285e-01
1.255648732185363770e-01 -2.441890537738800049e-03 6.403651833534240723e-02
4.625755250453948975e-01 -3.505619987845420837e-02 -2.216696143150329590e-01
4.682969152927398682e-01 -1.394504308700561523e-01 -3.778972923755645752e-01
2.691418826580047607e-01 -4.919592756778001785e-03 6.400642450898885727e-03
2.753284275531768799e-01 -1.174682676792144775e-01 -4.999235570430755615e-01
-1.418781876564025879e-01 -2.505744248628616333e-02 1.921888813376426697e-02
4.429551661014556885e-01 1.916348636150360107e-01 -4.532153606414794922e-01
3.808000683784484863e-02 6.979820877313613892e-02 2.154067903757095337e-01
1.292759180068969727e-01 -3.264432772994041443e-02 1.627150923013687134e-01
1.144280731678009033e-01 -3.790144249796867371e-02 1.502634026110172272e-02
-2.804440855979919434e-01 1.916675418615341187e-01 -3.691924214363098145e-01
4.736784845590591431e-02 1.096977367997169495e-01 1.934369802474975586e-01
1.241825446486473083e-01 -1.999722793698310852e-02 3.632489964365959167e-02
2.267397642135620117e-01 -1.885707825422286987e-01 -2.463188469409942627e-01
1.346950326114892960e-02 8.790638297796249390e-02 2.118098735809326172e-01
3.619691133499145508e-01 1.874736398458480835e-01 -3.669847548007965088e-01
4.259310960769653320e-01 1.510595381259918213e-01 -4.978265166282653809e-01
1.617897488176822662e-02 3.397366777062416077e-02 3.040058314800262451e-01
2.835579812526702881e-01 1.875136345624923706e-01 -3.362447321414947510e-01
1.121245399117469788e-01 -6.329163163900375366e-02 6.052491441369056702e-02
8.551451563835144043e-02 -1.152425780892372131e-01 7.188764959573745728e-02
4.195638895034790039e-01 1.874118745326995850e-01 -4.105957150459289551e-01
7.091692835092544556e-02 -1.871850043535232544e-01 -4.298594594001770020e-01
1.815331168472766876e-02 -2.398860640823841095e-02 4.223075807094573975e-01
-4.698574244976043701e-01 -8.878458291292190552e-02 -4.494400024414062500e-01
-4.530791044235229492e-01 -6.511765718460083008e-02 -3.233200907707214355e-01
-5.970912985503673553e-03 1.284560859203338623e-01 6.555966287851333618e-02
-2.577214315533638000e-02 3.006036393344402313e-02 3.294032216072082520e-01
-2.307167649269104004e-01 1.844099611043930054e-01 -1.570320278406143188e-01
4.729654490947723389e-01 1.177617833018302917e-01 -9.106810390949249268e-02
1.214713305234909058e-01 -1.881375312805175781e-01 -3.163591623306274414e-01
-4.471382126212120056e-03 3.702907264232635498e-02 3.606262207031250000e-01
4.659150242805480957e-01 2.257862500846385956e-02 -1.504250019788742065e-01
1.013509109616279602e-01 1.097645517438650131e-02 2.051320672035217285e-01
1.533725261688232422e-01 -1.873085796833038330e-01 -2.829382121562957764e-01
-1.898076683282852173e-01 -1.861143410205841064e-01 -2.144715636968612671e-01
4.628243744373321533e-01 5.341866239905357361e-02 -3.769090175628662109e-01
-3.383017778396606445e-01 1.906808763742446899e-01 -3.477481305599212646e-01
-4.495065510272979736e-01 -5.231199413537979126e-02 -4.999917149543762207e-01
-1.004478186368942261e-01 -7.172106951475143433e-02 7.691485434770584106e-02
-1.067734211683273315e-01 2.964839339256286621e-02 8.871778845787048340e-02
-1.062127649784088135e-01 1.569234067574143410e-03 6.647471338510513306e-02
-2.109866291284561157e-01 -1.876937597990036011e-01 -3.210786581039428711e-01
1.824141740798950195e-01 -1.885961145162582397e-01 -2.295779734849929810e-01
1.326035261154174805e-01 2.361533790826797485e-02 1.547964811325073242e-01
2.340945303440093994e-01 -1.896813809871673584e-01 -3.105673491954803467e-01
-7.490508258342742920e-02 9.075298905372619629e-02 1.872797608375549316e-01
-2.945003286004066467e-02 3.698598220944404602e-02 2.190068066120147705e-01
3.074562847614288330e-01 1.880484074354171753e-01 -4.055800437927246094e-01
3.967974781990051270e-01 -1.790595203638076782e-01 -4.981406629085540771e-01
4.742702841758728027e-01 1.567118912935256958e-01 -4.980540275573730469e-01
-4.666055738925933838e-01 -1.161348298192024231e-01 -2.698808312416076660e-01
1.450679600238800049e-01 -1.476785540580749512e-02 2.875542640686035156e-02
4.162862300872802734e-01 -1.924237459897994995e-01 -4.268462657928466797e-01
-4.502418041229248047e-01 -6.824928522109985352e-02 -5.005717277526855469e-01
8.492901176214218140e-02 -1.891295313835144043e-01 -3.729697763919830322e-01
-7.977946102619171143e-02 1.093552112579345703e-01 1.017796173691749573e-01
-5.596350878477096558e-02 1.932755112648010254e-02 2.159684449434280396e-01
-1.352797150611877441e-01 2.690798044204711914e-02 6.187010556459426880e-03
4.718498513102531433e-02 -1.020659133791923523e-01 5.398212000727653503e-03
-4.000885784626007080e-02 -7.103083282709121704e-02 2.097656577825546265e-01
1.978321969509124756e-01 -1.878974139690399170e-01 -2.650197148323059082e-01
-2.762182056903839111e-01 5.592850223183631897e-02 -5.867746099829673767e-02
-3.478898108005523682e-02 -1.120038107037544250e-01 1.823560893535614014e-01
-6.283496506512165070e-03 1.424461603164672852e-01 1.110025122761726379e-01
-1.569857262074947357e-02 -1.077544242143630981e-01 1.910619437694549561e-02
-4.551065862178802490e-01 2.007943950593471527e-02 -3.852069973945617676e-01
2.819086313247680664e-01 2.789130620658397675e-02 -4.996336102485656738e-01
2.832695841789245605e-01 -1.882870048284530640e-01 -3.254739642143249512e-01
-1.159712765365839005e-02 6.093708425760269165e-02 2.161697149276733398e-01
4.585056006908416748e-01 -1.437552422285079956e-01 -5.000000000000000000e-01
4.378740489482879639e-01 -1.332693547010421753e-01 -5.005040168762207031e-01
4.164239019155502319e-02 1.362701803445816040e-01 9.647265076637268066e-02
-1.971105486154556274e-01 -1.858968883752822876e-01 -2.264654636383056641e-01
3.008813560009002686e-01 -1.603861749172210693e-01 -5.013061165809631348e-01
-6.928171217441558838e-02 6.451924145221710205e-02 1.703893765807151794e-02
4.770328402519226074e-01 -1.619905382394790649e-01 -3.450278043746948242e-01
-2.202443480491638184e-01 2.158151380717754364e-02 -1.566611789166927338e-02
-8.294161409139633179e-03 3.156951814889907837e-02 2.793226242065429688e-01
-1.145259067416191101e-01 6.368456874042749405e-03 -1.106776483356952667e-02
-2.782159447669982910e-01 5.806912668049335480e-03 2.555371494963765144e-03
-4.590432047843933105e-01 6.724530830979347229e-03 -1.154479384422302246e-01
-3.744500875473022461e-01 -1.952069848775863647e-01 -4.804644286632537842e-01
2.153274836018681526e-03 1.274435818195343018e-01 6.027591601014137268e-02
-1.182930916547775269e-01 6.738029420375823975e-03 4.973584115505218506e-01
-1.236851960420608521e-01 -1.225092858076095581e-01 -5.001816749572753906e-01
1.031982153654098511e-01 8.891653269529342651e-02 1.772019863128662109e-01
1.971404701471328735e-01 1.874665915966033936e-01 -2.283132672309875488e-01
1.118103191256523132e-01 1.873688697814941406e-01 -4.238480329513549805e-01
-1.047982797026634216e-01 -1.419067569077014923e-02 7.946591079235076904e-02
-3.458859324455261230e-01 -1.906073093414306641e-01 -4.046603739261627197e-01
-1.160026118159294128e-01 1.917942240834236145e-02 2.090418525040149689e-02
-8.653336763381958008e-02 -8.507496118545532227e-02 5.874819308519363403e-02
7.649669796228408813e-02 -4.412752576172351837e-03 4.898920357227325439e-01
-4.677413031458854675e-03 -4.757191985845565796e-02 -4.999583661556243896e-01
2.039651125669479370e-01 2.448082901537418365e-02 -2.807161957025527954e-02
-2.512377202510833740e-01 -5.801115185022354126e-02 -4.998736679553985596e-01
-4.676948487758636475e-01 -1.309452950954437256e-01 -3.810329437255859375e-01
3.048599660396575928e-01 1.916648894548416138e-01 -4.480639994144439697e-01
-4.039817750453948975e-01 1.909872740507125854e-01 -4.104930758476257324e-01
2.058560587465763092e-02 -1.116506680846214294e-01 1.934719681739807129e-01
4.194749593734741211e-01 -5.388509854674339294e-02 -4.990538358688354492e-01
-9.895320981740951538e-02 -4.958662763237953186e-02 5.485431849956512451e-02
-4.052759408950805664e-01 1.211205869913101196e-02 -4.986584186553955078e-01
1.389499902725219727e-01 3.418669104576110840e-03 3.220655024051666260e-01
-6.283137947320938110e-02 -1.176124140620231628e-01 6.643052399158477783e-02
-2.994824945926666260e-01 -1.901053190231323242e-01 -3.293552994728088379e-01
1.756262630224227905e-01 -3.181334212422370911e-02 -4.358134046196937561e-02
8.832487463951110840e-02 1.896798014640808105e-01 -3.995693325996398926e-01
-4.818188026547431946e-02 1.255170404911041260e-01 1.732449084520339966e-01
4.126717150211334229e-01 -4.325427114963531494e-02 -4.999369680881500244e-01
1.727590337395668030e-03 -1.268803179264068604e-01 2.351240068674087524e-01
3.480404615402221680e-02 1.877949684858322144e-01 -3.919009268283843994e-01
1.408455241471529007e-02 -2.666277810931205750e-02 2.702764570713043213e-01
2.277478724718093872e-01 -1.865582019090652466e-01 -2.323617935180664062e-01
1.553693860769271851e-01 -1.515465904958546162e-03 9.786780923604965210e-03
-1.858284175395965576e-01 -1.230267137289047241e-01 -5.011420249938964844e-01
1.441325843334197998e-01 -1.454659365117549896e-02 3.993887081742286682e-02
-1.918052583932876587e-01 -1.877340078353881836e-01 -2.990278303623199463e-01
1.741249114274978638e-01 -1.873624771833419800e-01 -2.855997383594512939e-01
3.142863139510154724e-02 4.104948136955499649e-03 4.430589973926544189e-01
3.681746870279312134e-02 5.141969397664070129e-02 2.185639292001724243e-01
8.023584634065628052e-02 8.448575437068939209e-02 1.975408196449279785e-01
-4.516620934009552002e-01 3.413584455847740173e-02 -4.984118342399597168e-01
7.862946391105651855e-02 1.097197979688644409e-01 1.779394447803497314e-01
-1.022109165787696838e-01 -8.281221985816955566e-02 1.281787157058715820e-01
-2.211679667234420776e-01 -1.881838142871856689e-01 -2.973027527332305908e-01
4.658452272415161133e-01 -8.663860708475112915e-02 -3.948549628257751465e-01
6.565639376640319824e-02 -1.172888502478599548e-01 1.741789877414703369e-01
-1.148875951766967773e-01 5.598222464323043823e-02 1.531756371259689331e-01
4.647265076637268066e-01 -1.823248341679573059e-02 -1.453898400068283081e-01
-2.330329455435276031e-02 -1.647409200668334961e-01 -4.995540976524353027e-01
-3.004199638962745667e-02 -6.152148172259330750e-02 2.163606733083724976e-01
2.204508185386657715e-01 -1.905270814895629883e-01 -3.674377799034118652e-01
-2.111480832099914551e-01 -1.841828525066375732e-01 -1.418338268995285034e-01
3.243050351738929749e-02 1.178848221898078918e-01 4.777595400810241699e-02
4.639728069305419922e-01 5.248508974909782410e-02 -1.599767804145812988e-01
2.855356335639953613e-01 -9.034648537635803223e-02 -1.572420261800289154e-02
-4.539634883403778076e-01 4.324863851070404053e-02 -1.469804495573043823e-01
9.877686388790607452e-03 1.566651463508605957e-02 3.096308112144470215e-01
-1.618199199438095093e-01 1.878499835729598999e-01 -4.557022154331207275e-01
-1.750825643539428711e-01 5.853722617030143738e-02 -7.274137437343597412e-02
1.546975672245025635e-01 1.486763916909694672e-02 -9.969579055905342102e-03
4.697672724723815918e-01 1.863237321376800537e-01 -3.342671096324920654e-01
-9.659884124994277954e-02 -6.706160493195056915e-04 1.963404268026351929e-01
-3.081665337085723877e-01 -1.811887174844741821e-01 -1.342679411172866821e-01
-1.196103915572166443e-01 -5.653238855302333832e-03 -1.794184558093547821e-02
-4.610082209110260010e-01 3.315114229917526245e-02 -1.010241284966468811e-01
1.337819993495941162e-01 -5.128110945224761963e-02 -4.997903406620025635e-01
3.703134953975677490e-01 1.141885519027709961e-01 -5.000000000000000000e-01
-9.160748124122619629e-02 -6.962657719850540161e-02 1.767922341823577881e-01
-4.715955853462219238e-01 -1.163859516382217407e-01 -1.762101054191589355e-01
6.381434854120016098e-03 -1.879409700632095337e-01 -4.752498567104339600e-01
1.067049056291580200e-01 -4.700236395001411438e-02 1.874646358191967010e-02
4.621549248695373535e-01 -2.921218983829021454e-02 -3.961993157863616943e-01
3.049860335886478424e-02 -1.441890299320220947e-01 7.872776687145233154e-02
3.634010255336761475e-01 -1.412670910358428955e-01 -5.007582306861877441e-01
1.446600407361984253e-01 -1.159762311726808548e-02 -5.000000000000000000e-01
4.710896611213684082e-01 -9.041922539472579956e-02 -1.314684003591537476e-01
-1.661445051431655884e-01 3.977152518928050995e-03 -4.889578372240066528e-02
7.035494782030582428e-03 1.103418599814176559e-02 3.201714158058166504e-01
2.124503552913665771e-01 1.879628300666809082e-01 -2.399437427520751953e-01
4.192103743553161621e-01 1.893581151962280273e-01 -3.779666721820831299e-01
-4.959027841687202454e-02 -8.379781246185302734e-02 1.129531580954790115e-02
-3.079929016530513763e-02 -2.210683375597000122e-02 2.758642137050628662e-01
4.635085761547088623e-01 -8.600883930921554565e-02 -2.859214544296264648e-01
4.641489982604980469e-01 8.667156845331192017e-02 -1.852470189332962036e-01
3.341761231422424316e-02 1.321475058794021606e-01 8.444423973560333252e-02
2.951978445053100586e-01 1.868670433759689331e-01 -2.951751351356506348e-01
-2.637334726750850677e-02 -4.694965109229087830e-02 2.195762842893600464e-01
2.513149082660675049e-01 1.904067248106002808e-01 -3.095768094062805176e-01
-1.116642206907272339e-01 -3.485318273305892944e-03 4.511727951467037201e-03
1.253966093063354492e-01 9.381203912198543549e-03 4.795785248279571533e-02
1.578484922647476196e-01 1.116220932453870773e-02 -4.995832741260528564e-01
1.481333225965499878e-01 1.885756403207778931e-01 -2.210879623889923096e-01
-9.366364777088165283e-02 3.080990165472030640e-02 1.513089518994092941e-02
6.984214484691619873e-02 1.330909729003906250e-01 1.442686021327972412e-01
4.655936062335968018e-01 8.600015938282012939e-02 -4.041005373001098633e-01
-4.681637287139892578e-01 1.306036561727523804e-01 -4.511505663394927979e-01
1.378503441810607910e-01 1.494744140654802322e-02 6.984813511371612549e-02
4.734117984771728516e-01 -1.444522738456726074e-01 -2.270353734493255615e-01
-4.024190604686737061e-01 -1.915056258440017700e-01 -3.925533592700958252e-01
3.927268981933593750e-01 -1.135824806988239288e-02 -4.998253583908081055e-01
9.330371767282485962e-02 -1.178758740425109863e-01 8.441959321498870850e-02
1.443321853876113892e-01 1.867233812808990479e-01 -3.695739805698394775e-01
3.110033273696899414e-01 1.878364682197570801e-01 -3.541311025619506836e-01
-1.366030871868133545e-01 3.318729996681213379e-02 -5.004588961601257324e-01
1.247071325778961182e-01 1.397040113806724548e-02 1.782861649990081787e-01
2.668850868940353394e-02 1.326235383749008179e-02 2.271347939968109131e-01
4.640403687953948975e-01 -1.743389293551445007e-05 -2.037017941474914551e-01
1.117055639624595642e-01 1.432743947952985764e-02 2.966193854808807373e-01
-4.619405567646026611e-01 -7.532831281423568726e-02 -4.090169370174407959e-01
4.736767113208770752e-01 -1.495643854141235352e-01 -2.638026177883148193e-01
-1.012343540787696838e-01 -6.258609145879745483e-02 1.668568104505538940e-01
4.671640396118164062e-01 7.774530351161956787e-02 -4.914345741271972656e-01
-8.954465389251708984e-02 -8.635929971933364868e-02 1.606147885322570801e-01
2.259434610605239868e-01 -1.892776340246200562e-01 -3.476230204105377197e-01
-1.246098056435585022e-01 -4.334405995905399323e-03 3.806192800402641296e-02
-2.282899431884288788e-02 -1.428026407957077026e-01 1.296955645084381104e-01
8.132197707891464233e-02 1.272589564323425293e-01 1.342139393091201782e-01
6.096551194787025452e-02 -1.905250847339630127e-01 -3.863742947578430176e-01
-3.568378388881683350e-01 -1.907738000154495239e-01 -3.336558341979980469e-01
4.652386903762817383e-01 -9.126406162977218628e-02 -4.643607139587402344e-01
1.247075349092483521e-01 1.389839034527540207e-02 1.785292029380798340e-01
7.020135968923568726e-02 9.748622030019760132e-02 1.953256130218505859e-01
-1.004550531506538391e-01 -8.265746384859085083e-02 8.375456929206848145e-02
2.459542751312255859e-01 -1.917124390602111816e-01 -2.756791114807128906e-01
-2.657894194126129150e-01 -1.850922107696533203e-01 -1.775683015584945679e-01
7.190307229757308960e-02 -1.778090447187423706e-01 -1.336122900247573853e-01
-8.580438792705535889e-02 -1.176712960004806519e-01 -5.000000000000000000e-01
3.066417993977665901e-03 6.840365938842296600e-03 3.850999474525451660e-01
-1.229109093546867371e-01 6.172416731715202332e-03 5.776378512382507324e-02
3.949820995330810547e-01 1.101208850741386414e-01 -5.011329650878906250e-01
-7.288514822721481323e-02 -1.012484729290008545e-01 5.696344003081321716e-02
1.649416387081146240e-01 -1.820119917392730713e-01 -1.225094199180603027e-01
-4.755944013595581055e-01 -1.578316539525985718e-01 -2.319790124893188477e-01
-1.124174743890762329e-01 6.738138943910598755e-02 1.392996162176132202e-01
-2.770394086837768555e-01 5.247423052787780762e-02 -4.999637901782989502e-01
6.305590271949768066e-02 1.077837720513343811e-01 4.839911311864852905e-02
4.436670839786529541e-01 -6.417580693960189819e-02 -3.082111664116382599e-02
1.258731186389923096e-01 -9.948674589395523071e-03 1.078484579920768738e-02
7.914427667856216431e-02 -1.086855605244636536e-01 5.763615295290946960e-02
-6.496977061033248901e-02 -1.220854297280311584e-01 1.410866379737854004e-01
-2.759288251399993896e-01 -1.869342625141143799e-01 -2.304260581731796265e-01
4.473287165164947510e-01 -1.938381791114807129e-01 -3.141060769557952881e-01
-2.088474333286285400e-01 -1.909254938364028931e-01 -4.312209188938140869e-01
-1.722659729421138763e-02 6.630631536245346069e-02 2.145509570837020874e-01
-3.416777551174163818e-01 -8.814781904220581055e-02 -4.999075531959533691e-01
-2.088936865329742432e-01 3.606123104691505432e-02 -5.000000000000000000e-01
1.607674360275268555e-01 1.878848373889923096e-01 -2.413459718227386475e-01
-1.260077208280563354e-01 -8.378811180591583252e-04 9.106166660785675049e-03
-6.804274767637252808e-02 1.052800044417381287e-01 6.751138716936111450e-02
1.639515459537506104e-01 -1.868836730718612671e-01 -2.575411200523376465e-01
-1.089613959193229675e-01 7.253384590148925781e-02 1.087027192115783691e-01
-3.214895725250244141e-01 1.901202052831649780e-01 -4.212596416473388672e-01
-1.730631589889526367e-01 6.211855262517929077e-02 -5.000000000000000000e-01
2.762103080749511719e-02 1.369961053133010864e-01 1.777800470590591431e-01
1.149360910058021545e-01 4.833255708217620850e-02 3.603383153676986694e-02
4.647138416767120361e-01 1.577206254005432129e-01 -3.877900242805480957e-01
6.112317740917205811e-02 -1.133365929126739502e-01 4.138822481036186218e-02
-2.444826662540435791e-01 -1.833599507808685303e-01 -1.445952057838439941e-01
1.158960685133934021e-01 3.989783301949501038e-02 -2.882706467062234879e-03
3.677217289805412292e-02 -2.851215563714504242e-02 4.166812300682067871e-01
-9.761993587017059326e-02 1.872607618570327759e-01 -4.276449382305145264e-01
1.438821107149124146e-01 -1.885204762220382690e-02 -7.965646684169769287e-02
2.819432020187377930e-01 1.846624165773391724e-01 -2.278087735176086426e-01
1.047586798667907715e-01 -6.663102656602859497e-02 5.074234306812286377e-02
-4.630698859691619873e-01 -6.290990859270095825e-02 -7.657411694526672363e-02
1.252541691064834595e-01 1.651155948638916016e-02 6.555560231208801270e-02
-7.629890460520982742e-03 4.251600801944732666e-02 2.217081189155578613e-01
4.637209773063659668e-01 -5.302011594176292419e-02 -4.264975190162658691e-01
-4.728536903858184814e-01 -1.010086983442306519e-01 -4.592946171760559082e-01
-4.515763521194458008e-01 2.546039782464504242e-02 -1.954231262207031250e-01
-2.376688122749328613e-01 -1.872036457061767578e-01 -2.832964062690734863e-01
4.629941880702972412e-01 8.859635889530181885e-02 -2.429555803537368774e-01
-3.856784999370574951e-01 -5.228983983397483826e-02 -4.999463260173797607e-01
6.156952306628227234e-02 -1.880699992179870605e-01 -4.152454733848571777e-01
-4.537530541419982910e-01 -2.102848701179027557e-02 -1.973646581172943115e-01
-2.025594413280487061e-01 7.709017395973205566e-02 -5.000000000000000000e-01
3.402740135788917542e-02 -1.259606033563613892e-01 1.750053465366363525e-01
-4.251990318298339844e-01 -6.276010535657405853e-03 -5.002841949462890625e-01
4.554122090339660645e-01 1.806539744138717651e-01 -4.824046790599822998e-01
1.486992537975311279e-01 1.511157676577568054e-02 1.577992551028728485e-02
-1.601319909095764160e-01 1.483270376920700073e-01 -5.000000000000000000e-01
-1.129424422979354858e-01 6.638815253973007202e-02 1.427360326051712036e-01
8.751834183931350708e-02 6.830905377864837646e-02 -9.792773053050041199e-03
1.133545562624931335e-01 1.310806721448898315e-02 1.990562975406646729e-01
-8.338769525289535522e-02 1.044719740748405457e-01 -5.007766485214233398e-01
2.587263844907283783e-02 1.219776198267936707e-01 1.892220973968505859e-01
7.252244651317596436e-02 -1.882056444883346558e-01 -3.997016251087188721e-01
1.212162747979164124e-01 4.869933053851127625e-02 7.314687967300415039e-02
-2.691887915134429932e-01 5.711756180971860886e-03 -5.003431439399719238e-01
4.838381409645080566e-01 8.132957667112350464e-02 -4.864447116851806641e-01
-4.594198763370513916e-01 -7.994616776704788208e-02 -1.317077279090881348e-01
-7.844454608857631683e-03 -1.150099486112594604e-01 1.891600936651229858e-01
3.632389605045318604e-01 6.538503337651491165e-03 -4.983437061309814453e-01
2.694878280162811279e-01 7.478938996791839600e-02 -5.003699064254760742e-01
-5.406931042671203613e-02 -1.021766588091850281e-01 4.132214188575744629e-02
-1.505015194416046143e-01 4.821390286087989807e-02 -5.003855228424072266e-01
7.467494159936904907e-02 -1.873620748519897461e-01 -4.116859138011932373e-01
-2.162733525037765503e-01 -1.876521110534667969e-01 -3.880623579025268555e-01
-5.427579581737518311e-02 -1.129648163914680481e-01 1.681740731000900269e-01
2.115592509508132935e-01 -1.873615235090255737e-01 -2.326928526163101196e-01
-8.346436917781829834e-02 4.495963081717491150e-02 2.000762224197387695e-01
4.686589837074279785e-01 -2.507343702018260956e-02 -8.485381305217742920e-02
1.022157594561576843e-01 8.823724091053009033e-02 1.758957058191299438e-01
4.200847446918487549e-01 1.886207908391952515e-01 -1.268960386514663696e-01
-2.486033290624618530e-01 -2.738438360393047333e-02 -6.642102263867855072e-03
4.733861386775970459e-01 1.417915523052215576e-01 -4.309382438659667969e-01
4.723880887031555176e-01 -1.537320315837860107e-01 -2.508094310760498047e-01
-4.418868422508239746e-01 -1.917291879653930664e-01 -4.002207517623901367e-01
1.222878769040107727e-01 -4.808413237333297729e-02 1.701740771532058716e-01
-4.687031507492065430e-01 6.246099993586540222e-02 -5.017256736755371094e-01
1.449816823005676270e-01 -1.867464482784271240e-01 -2.682430148124694824e-01
-2.058049589395523071e-01 5.537904798984527588e-02 -4.999069273471832275e-01
3.841377496719360352e-01 5.394814535975456238e-02 -5.000000000000000000e-01
3.573027253150939941e-01 6.943774968385696411e-02 -4.987780749797821045e-01
-4.530224800109863281e-01 4.949019476771354675e-02 -2.126040756702423096e-01
-4.757395982742309570e-01 -1.594968885183334351e-01 -2.710648179054260254e-01
-4.515866935253143311e-01 8.807739615440368652e-02 -4.985639750957489014e-01
-4.433821737766265869e-01 -1.292323768138885498e-01 -4.995974600315093994e-01
-1.745549775660037994e-02 1.544577628374099731e-02 3.403027653694152832e-01
1.702183932065963745e-01 -2.050253003835678101e-02 -3.576367348432540894e-02
-3.712024092674255371e-01 -1.896398961544036865e-01 -3.162600994110107422e-01
-1.871472746133804321e-01 -6.874335557222366333e-02 -5.002564787864685059e-01
-1.017274707555770874e-01 -1.610600017011165619e-02 3.167852014303207397e-02
-7.853802293539047241e-02 -5.693959444761276245e-02 -8.947141468524932861e-04
-1.914878487586975098e-01 9.562666714191436768e-02 -5.000000000000000000e-01
-4.291602075099945068e-01 9.739723056554794312e-03 -4.984797537326812744e-01
-3.799189627170562744e-01 1.898584663867950439e-01 -4.474135935306549072e-01
4.637548327445983887e-01 9.921467304229736328e-02 -1.730576902627944946e-01
2.564415931701660156e-01 -1.869833469390869141e-01 -1.105879023671150208e-01
-8.327472209930419922e-02 5.260065570473670959e-02 -4.700617119669914246e-02
2.396827004849910736e-02 -3.435276821255683899e-02 -5.000000000000000000e-01
-3.200592398643493652e-01 -1.906565576791763306e-01 -3.715187609195709229e-01
1.182766854763031006e-01 -1.875314116477966309e-01 -3.336470127105712891e-01
1.512385308742523193e-01 -1.794763952493667603e-01 -1.288100630044937134e-01
-3.079495206475257874e-02 -4.092621058225631714e-02 -4.998620450496673584e-01
8.988513797521591187e-02 -7.721561193466186523e-02 3.161985799670219421e-02
1.334255784749984741e-01 -3.252774477005004883e-02 1.356557160615921021e-01
1.512688398361206055e-01 1.757543999701738358e-03 3.192254528403282166e-02
-4.542939662933349609e-01 -5.653821676969528198e-02 -2.450075894594192505e-01
1.370971947908401489e-01 7.472921162843704224e-03 8.233013004064559937e-02
-1.325051188468933105e-01 1.858013421297073364e-01 -1.874699741601943970e-01
-1.832040399312973022e-01 -5.134306382387876511e-03 3.516776487231254578e-02
2.590736374258995056e-02 3.662307560443878174e-02 3.761184811592102051e-01
7.624085992574691772e-02 -8.220289647579193115e-02 1.628913730382919312e-02
4.162535816431045532e-02 1.816460192203521729e-01 -4.770404398441314697e-01
2.435200475156307220e-02 -6.968615949153900146e-02 2.156223058700561523e-01
-1.849265545606613159e-01 -1.909667849540710449e-01 -4.599668979644775391e-01
1.183104291558265686e-01 6.845742464065551758e-02 7.991829514503479004e-02
1.064593344926834106e-01 -1.063031777739524841e-01 1.268767267465591431e-01
3.586679100990295410e-01 -1.274492591619491577e-01 -5.002903342247009277e-01
7.292250543832778931e-02 9.034416824579238892e-02 1.645233854651451111e-02
-4.787759184837341309e-01 -1.767741888761520386e-01 -1.900257766246795654e-01
2.597424089908599854e-01 1.843935996294021606e-01 -1.595824956893920898e-01
3.371126949787139893e-01 1.875032335519790649e-01 -3.098038434982299805e-01
4.638317823410034180e-01 -2.089626528322696686e-02 -2.689256966114044189e-01
2.310236692428588867e-01 -1.907700300216674805e-01 -3.707650005817413330e-01
-1.553687751293182373e-01 -2.558892779052257538e-02 -3.442209679633378983e-03
-3.879943490028381348e-01 2.093049325048923492e-02 -4.995205998420715332e-01
-4.783810079097747803e-01 -1.495151668787002563e-01 -4.494597911834716797e-01
3.885082006454467773e-01 2.851927280426025391e-02 -5.009248852729797363e-01
-3.808136582374572754e-01 -1.916015595197677612e-01 -3.314452171325683594e-01
4.137901961803436279e-01 1.094495430588722229e-01 -5.006992220878601074e-01
4.661792814731597900e-01 -9.211203455924987793e-02 -3.162985146045684814e-01
-4.945162311196327209e-02 1.346350610256195068e-01 1.196111738681793213e-01
-1.667748391628265381e-02 1.605311036109924316e-02 3.328298926353454590e-01
-4.566865265369415283e-01 -4.878184944391250610e-02 -4.069790244102478027e-01
-4.663253724575042725e-01 5.083344876766204834e-03 -4.489301443099975586e-01
-4.568918049335479736e-01 1.055414378643035889e-01 -3.595203459262847900e-01
1.486546099185943604e-01 -7.073299493640661240e-03 -8.731102570891380310e-04
-3.411299586296081543e-01 -1.915928423404693604e-01 -4.240503609180450439e-01
3.018575906753540039e-01 -1.877135634422302246e-01 -1.817223131656646729e-01
1.847642511129379272e-01 1.871715188026428223e-01 -2.089178413152694702e-01
1.591690927743911743e-01 -1.576449722051620483e-02 -4.201075807213783264e-02
-1.785640567541122437e-01 -1.852645874023437500e-01 -1.646713167428970337e-01
2.297877669334411621e-01 6.799004971981048584e-03 -4.993344545364379883e-01
2.265330776572227478e-02 -7.937387563288211823e-03 4.267019331455230713e-01
4.637567400932312012e-01 1.006436049938201904e-01 -2.305879890918731689e-01
6.578534096479415894e-02 4.759810119867324829e-02 -4.987697005271911621e-01
1.253236979246139526e-01 2.457841672003269196e-02 8.010607212781906128e-02
-4.674167037010192871e-01 -8.165064454078674316e-02 -4.401187002658843994e-01
4.028924107551574707e-01 2.340140566229820251e-02 -5.011584758758544922e-01
4.667189121246337891e-01 2.614783681929111481e-02 -1.268210560083389282e-01
-1.346091926097869873e-01 7.441860623657703400e-03 4.945478141307830811e-01
2.377887070178985596e-01 -1.886312961578369141e-01 -3.262870013713836670e-01
9.807198494672775269e-02 -1.700630225241184235e-02 4.947366118431091309e-01
-4.779268205165863037e-01 -1.611773073673248291e-01 -1.703972071409225464e-01
7.555467635393142700e-02 9.290326386690139771e-02 3.020727634429931641e-02
-2.514153718948364258e-01 -1.834147125482559204e-01 -1.687108427286148071e-01
2.561657428741455078e-01 1.887161731719970703e-01 -3.279443979263305664e-01
1.791036874055862427e-01 2.498563006520271301e-02 5.967238917946815491e-03
-7.606218755245208740e-02 4.921299219131469727e-02 -1.304403319954872131e-02
2.477431297302246094e-01 -1.892378777265548706e-01 -3.065816462039947510e-01
2.369689047336578369e-01 1.879059821367263794e-01 -2.630194723606109619e-01
3.822886645793914795e-01 -5.650459602475166321e-02 -4.989802241325378418e-01
-5.963277816772460938e-02 8.632582426071166992e-02 1.959330588579177856e-01
2.352190390229225159e-02 3.384540602564811707e-02 3.101283311843872070e-01
4.187639802694320679e-02 -5.057986453175544739e-02 -4.997986555099487305e-01
3.396102488040924072e-01 -1.607037186622619629e-01 -4.982554316520690918e-01
-3.750216588377952576e-02 1.346785873174667358e-01 9.931865334510803223e-02
3.466318249702453613e-01 9.385535866022109985e-02 -4.998671114444732666e-01
4.659960567951202393e-01 1.152192875742912292e-01 -3.239721953868865967e-01
4.646676480770111084e-01 1.187699735164642334e-01 -3.810456991195678711e-01
-3.266283869743347168e-02 8.942084759473800659e-02 -8.551430888473987579e-03
3.061034977436065674e-01 1.872298717498779297e-01 -3.374227285385131836e-01
-9.229991585016250610e-02 3.375911712646484375e-02 1.233831048011779785e-02
-1.755329370498657227e-01 2.776082232594490051e-02 1.882920041680335999e-03
-1.976641416549682617e-01 -1.781553924083709717e-01 -8.453956991434097290e-02
4.669588506221771240e-01 -8.167116343975067139e-02 -3.436729907989501953e-01
4.624075293540954590e-01 -7.023833692073822021e-02 -2.576375007629394531e-01
1.403183490037918091e-01 8.110594935715198517e-03 5.965534970164299011e-02
1.259602159261703491e-01 3.020993992686271667e-02 4.787117838859558105e-01
3.531008958816528320e-01 1.889331936836242676e-01 -4.299995005130767822e-01
-6.574484705924987793e-02 1.074858903884887695e-01 7.031514495611190796e-02
1.262099146842956543e-01 -1.887722760438919067e-01 -2.982986569404602051e-01
4.697684943675994873e-01 1.311014220118522644e-02 -8.159251511096954346e-02
3.573945164680480957e-01 -1.138288676738739014e-01 -4.999461174011230469e-01
1.638383865356445312e-01 1.871534138917922974e-01 -2.581311166286468506e-01
-1.428396999835968018e-01 1.513803843408823013e-02 4.338101446628570557e-01
3.135212883353233337e-02 -1.016892418265342712e-01 -1.318261260166764259e-03
-2.814382910728454590e-01 -1.887293159961700439e-01 -2.883434891700744629e-01
4.531697332859039307e-01 1.328260600566864014e-01 -4.200750887393951416e-01
-9.670193493366241455e-02 5.136254429817199707e-02 1.907281130552291870e-01
1.931186467409133911e-01 -1.867268979549407959e-01 -2.113278955221176147e-01
2.142480462789535522e-01 -6.535069644451141357e-02 -4.993562400341033936e-01
2.174157351255416870e-01 -3.675285726785659790e-02 -4.560851491987705231e-03
4.182723760604858398e-01 -2.290844917297363281e-02 -4.981443583965301514e-01
-4.718237221240997314e-01 -1.353646218776702881e-01 -4.093922078609466553e-01
8.111526072025299072e-02 -1.257922053337097168e-01 8.399523794651031494e-02
-6.092657521367073059e-02 -3.885058686137199402e-02 2.106492370367050171e-01
3.462180793285369873e-01 1.875543147325515747e-01 -3.483503162860870361e-01
-8.212975412607192993e-02 1.098360568284988403e-01 1.116224899888038635e-01
4.634998142719268799e-01 -2.961655706167221069e-02 -2.039013803005218506e-01
-4.556314945220947266e-01 -9.023514389991760254e-02 -2.740409672260284424e-01
2.554944157600402832e-01 -1.877547204494476318e-01 -3.209148645401000977e-01
-4.644232392311096191e-01 -4.676917940378189087e-02 -7.318342477083206177e-02
-4.821667373180389404e-01 1.379925608634948730e-01 -4.845391809940338135e-01
9.828882664442062378e-02 7.475943863391876221e-02 3.604354336857795715e-02
-1.940046548843383789e-01 -1.302859000861644745e-02 -4.999575316905975342e-01
2.415300905704498291e-02 1.364586800336837769e-01 -5.006585717201232910e-01
2.961108088493347168e-02 -3.067102096974849701e-02 2.231163233518600464e-01
2.644342184066772461e-01 1.880792379379272461e-01 -3.678804934024810791e-01
4.641865789890289307e-01 1.007745787501335144e-01 -4.126324653625488281e-01
-4.769629836082458496e-01 -1.606043577194213867e-01 -2.043313086032867432e-01
-2.142320424318313599e-01 1.212734915316104889e-02 -4.993510246276855469e-01
4.633496701717376709e-01 7.306161522865295410e-02 -3.681926131248474121e-01
-7.307082414627075195e-02 -3.145892545580863953e-02 4.508562684059143066e-01
8.167567849159240723e-02 1.881359964609146118e-01 -4.067314565181732178e-01
-4.548104405403137207e-01 -7.932876795530319214e-02 -2.408235073089599609e-01
-4.292643070220947266e-01 1.905640661716461182e-01 -4.715757369995117188e-01
4.530009329319000244e-01 1.070528328418731689e-01 -4.439214468002319336e-01
-1.223446354269981384e-01 5.639655515551567078e-03 1.344270706176757812e-01
-9.478606283664703369e-02 6.266711652278900146e-02 6.385637074708938599e-02
4.955479502677917480e-02 -6.994019728153944016e-03 4.699629843235015869e-01
-1.692301928997039795e-01 -1.542996987700462341e-02 -4.391563683748245239e-02
-9.486158192157745361e-02 -9.625485539436340332e-02 1.180226802825927734e-01
-9.114959090948104858e-02 -9.045019745826721191e-02 7.099950313568115234e-02
3.618454933166503906e-01 1.872748136520385742e-01 -3.548312187194824219e-01
2.794063277542591095e-02 9.904349595308303833e-02 3.551997360773384571e-04
-2.124244719743728638e-01 -2.946360222995281219e-02 -1.159051153808832169e-02
-4.558343291282653809e-01 7.858328521251678467e-02 -1.178407594561576843e-01
5.728262662887573242e-02 6.168001145124435425e-02 2.133854925632476807e-01
4.629071652889251709e-01 -1.928669214248657227e-01 -3.358249366283416748e-01
-2.346731573343276978e-01 1.782455444335937500e-01 -5.014231801033020020e-01
-1.282735019922256470e-01 6.164621561765670776e-03 -3.754976391792297363e-02
4.777720663696527481e-03 1.829202286899089813e-02 2.284110486507415771e-01
-2.308131903409957886e-01 -1.845870018005371094e-01 -1.242918521165847778e-01
1.344697475433349609e-01 1.926522888243198395e-02 1.334709525108337402e-01
4.765543639659881592e-01 1.381570994853973389e-01 -4.682656526565551758e-01
4.563682079315185547e-01 1.868955641984939575e-01 -3.529439270496368408e-01
-1.830298267304897308e-02 1.308083981275558472e-01 1.826433539390563965e-01
-4.528101980686187744e-01 -1.782452687621116638e-03 -2.365347146987915039e-01
-1.083396822214126587e-01 1.872640401124954224e-01 -2.553302943706512451e-01
-1.345063280314207077e-02 1.366511285305023193e-01 9.045976400375366211e-02
-4.561534225940704346e-01 6.319320946931838989e-02 -1.158875301480293274e-01
-2.589871641248464584e-03 1.289915740489959717e-01 1.856761276721954346e-01
